# .PCD v0.7 - Point Cloud Data file format
VERSION 0.7
FIELDS x y z intensity
SIZE 4 4 4 4
TYPE F F F F
COUNT 1 1 1 1
WIDTH 1236
HEIGHT 1
VIEWPOINT 0 0 0 1 0 0 0
POINTS 1236
DATA ascii
20.994291 -9.8438396 1.0188527 12.524437
21.100779 -9.3687611 1.0338708 13.350083
21.029806 -8.9765491 1.0196893 13.900219
21.131485 -8.4576902 1.0684558 15.0525
21.030502 -5.95085 0.88053519 14.856021
21.408602 -11.683771 -1.7735375 2.8137255
21.492998 -11.43945 -1.9393554 2.3333333
21.42248 -11.056203 -1.9345345 3.3333333
21.405687 -10.568239 -1.9276726 3
21.326078 -10.175523 -1.9190581 5
21.346294 -9.813261 -1.9097775 5
21.452955 -9.3972645 -1.8938562 3.6666667
21.395864 -8.9242525 -1.7288439 1.5
21.357445 -11.700612 -1.4137449 3.7583334
21.354053 -8.9126644 -1.3665851 3.330435
21.369541 -11.714673 -1.0221537 5.8239136
21.342369 -8.9143143 -0.96875709 5.4289851
21.280737 -8.7271576 -0.8579089 6.5
21.395144 -11.73546 -0.6350053 8.0818968
21.287046 -8.9079428 -0.59323627 7.6061106
21.298098 -8.6087532 -0.59266239 8.0148935
21.232836 -8.3839979 -0.71653944 6.5
21.326159 -7.0310054 -0.64267761 7.5999999
21.365543 -5.6483674 -0.602799 7
21.42919 -5.4495521 -0.45553482 8.0162001
21.403854 -11.75158 -0.20778704 10.34435
21.300835 -8.9181862 -0.19639994 9.9918528
21.311708 -8.6274176 -0.16859195 11.422719
21.253403 -6.9857306 -0.15674323 11.423187
21.540421 -5.6221895 -0.083792359 10
21.381575 -5.4939466 -0.22404717 9.1387777
21.418749 -11.773113 0.19204918 11.616666
21.317129 -8.920537 0.19854882 12.554893
21.291517 -8.6392107 0.17316636 13.359324
21.419703 -5.7109294 0.23599246 11.825267
21.313442 -5.5728474 0.02644892 10.5
21.429394 -11.796227 0.58264363 12.538462
21.280437 -11.265878 0.7931217 9.0675001
21.309254 -8.929985 0.55355251 13.170967
21.256638 -8.7268381 0.46636844 13.765125
21.400751 -5.8719621 0.60650235 14.051888
21.427996 -11.75682 0.93984145 11.75
21.376469 -11.352216 0.99271291 11
21.410721 -11.039145 0.99873322 11
21.288572 -10.590335 1.0025936 13
21.350721 -10.239544 1.0122482 12.5
21.315184 -9.7793989 1.0282706 13.4
21.417961 -9.3304968 1.0455855 12.5
21.300488 -8.9515772 0.87363237 13.305
21.486519 -6.0508885 1.0065968 14.8146
21.296539 -5.980957 0.87465191 14.82861
21.807095 -11.735803 -1.7329186 2.2192986
21.712889 -11.392144 -1.9434625 2.5
21.716515 -11.033659 -1.937996 3.75
21.746365 -10.630602 -1.9167383 3.1666667
21.748341 -10.221439 -1.9096875 3.1666667
21.783207 -9.8364515 -1.899683 3
21.78587 -9.4123697 -1.8840643 3
21.784979 -8.9954319 -1.7732897 1.5
21.786728 -11.746091 -1.3967074 4.1166668
21.765421 -10.475706 -1.2835255 3.75
21.692265 -10.262272 -1.3563731 3.2666667
21.792892 -8.9525385 -1.4357308 1.6727272
21.796423 -11.76445 -1.0306822 5.9848485
21.739553 -10.513875 -0.96355474 6.2916665
21.780157 -10.235207 -0.97172505 6.1666665
21.820791 -8.9671564 -1.0576553 4.310606
21.803064 -11.779935 -0.64330149 7.7795696
21.70418 -10.515094 -0.68108869 8.5671253
21.727776 -10.200579 -0.59226942 9.1261005
21.660036 -8.9157352 -0.4892166 8.0504999
21.785118 -7.1257224 -0.54789418 8.416667
21.834152 -5.789845 -0.63226336 7
21.699928 -5.4613876 -0.49047396 8.0210629
21.821392 -11.800464 -0.20228873 10.052149
21.769266 -10.428923 -0.36174172 11
21.769455 -10.325218 -0.29109621 11.533
21.884317 -7.2174349 -0.24431118 11
21.642567 -7.1647329 -0.23713146 11
21.724201 -5.6338911 -0.10036975 10
21.748508 -5.5359392 -0.27002215 8.9729481
21.788895 -11.818666 0.1901751 12.041667
21.855181 -8.9169159 0.042401344 13.126622
21.75993 -5.7436209 0.20872183 11.546297
21.771856 -11.840158 0.62244505 12.094898
21.755146 -5.923202 0.62724417 14.069918
21.853132 -11.79563 0.92042637 12.833333
21.87854 -11.380842 0.93784767 12
21.894003 -11.016741 0.94331259 12.416201
21.935944 -10.653962 0.95735878 13.760375
21.823866 -10.25605 0.95037502 10
21.883677 -9.7937737 0.96632117 10
21.859819 -9.0242929 0.95168209 14.049416
21.913624 -8.6004934 1.0309947 15.052
21.690872 -6.0466266 0.88379955 14.357166
22.222923 -11.780491 -1.7404354 2.0614035
22.029427 -11.208564 -1.945276 0
22.087868 -10.914392 -1.9325274 0
22.143368 -10.52832 -1.9174579 0
22.161921 -10.24852 -1.906101 0
22.151247 -9.7900429 -1.8870716 0
22.099976 -9.3604126 -1.8677646 0
22.180843 -8.9965858 -1.7071223 1.6305555
22.187803 -11.795271 -1.4275047 3.7196429
22.178516 -8.9992571 -1.405511 3.2434785
22.205929 -11.809104 -1.0358986 5.8113098
22.196724 -9.0144663 -1.0075638 5.275362
22.190878 -8.5190258 -0.89550382 5.3333335
22.206974 -11.827887 -0.61975992 8.2801085
22.235945 -8.99265 -0.59678823 7.6805911
22.201309 -8.6526461 -0.63635117 7.4636364
22.274162 -7.2236443 -0.53846723 8.666667
22.281292 -7.1483512 -0.69428241 7.3000002
22.198698 -5.658865 -0.60825253 7
22.071417 -5.4825287 -0.45994028 8
22.211817 -11.843572 -0.18167283 10.719065
22.230782 -8.9992208 -0.18321522 10.166667
22.254549 -8.6326323 -0.17251593 11.093583
22.258389 -7.2378478 -0.31020963 10.5
22.141582 -5.653017 -0.078414537 10
22.237806 -5.5527225 -0.32758459 8.6452503
22.162706 -11.86018 0.20798926 11.558794
22.240898 -9.0204611 0.1773355 12.051223
22.266571 -8.6603994 0.12796572 13.273333
22.23945 -5.8368721 0.25254962 12.475
22.147762 -11.878366 0.61442494 12.524655
22.256958 -9.0244341 0.58268291 12.869038
22.281958 -8.6766624 0.43633753 14.6425
22.217016 -6.0386763 0.71358716 14.725858
22.245184 -5.9471006 0.52317816 13.928572
22.220367 -11.827785 0.89396185 12.6
22.148169 -11.369524 0.93899512 11.8
22.114098 -10.946993 0.94810492 12.120889
22.169373 -10.566726 0.95863777 12.008901
22.192089 -10.22417 0.97085106 12.292178
22.172035 -9.8091898 0.98673785 12.894
22.189425 -9.4315691 1.0044231 12.886812
22.169569 -9.0974207 0.94736546 12.788639
22.217066 -6.1705289 0.97283334 15
22.624681 -11.798803 -1.8050518 1.9375001
22.642078 -11.431346 -1.9725831 2.5
22.696665 -11.062297 -1.9618096 3
22.733286 -10.677305 -1.9463791 2.6666667
22.785046 -10.270382 -1.9334538 3
22.773445 -9.2169523 -1.9063723 2
22.612535 -9.0338936 -1.7664458 1.5238096
22.576468 -11.836305 -1.4193892 4.2611113
22.701136 -10.556333 -1.3193028 3.4333334
22.647161 -10.339721 -1.2921631 3.6875
22.523499 -9.0338173 -1.4237701 3.2
22.587669 -11.85344 -1.0241808 5.9473686
22.65431 -10.584329 -0.98480666 6.1666665
22.708799 -10.26298 -0.95068264 6.3333335
22.516895 -9.0413113 -1.0610305 4.9444442
22.604113 -11.874325 -0.60544193 8.0333338
22.659815 -10.570313 -0.65579873 8.8502083
22.67873 -10.285215 -0.62448925 8.9879999
22.511631 -9.0565605 -0.62095279 7.25
22.637428 -7.2666626 -0.58308065 8.3809519
22.530386 -5.7910519 -0.63364023 7
22.594496 -11.886221 -0.19559677 10.023
22.705254 -10.510684 -0.36230478 11.210667
22.694469 -10.380752 -0.30982247 11.5
22.495495 -9.0667658 -0.24310181 8.666667
22.718842 -7.0798397 -0.11063533 12.09175
22.616272 -5.6999736 -0.18419734 9.2222223
22.452898 -5.5914454 -0.31665424 8.666667
22.63595 -14.137805 0.011868977 13.6575
22.566296 -11.904575 0.21038517 11.757891
22.455147 -9.0614862 0.0070554344 11
22.620283 -5.8603458 0.21192019 11.765667
22.616507 -11.927261 0.59600133 11.915258
22.603001 -6.0526037 0.62452537 13.948719
22.660128 -5.9781232 0.48238844 13.617399
22.650169 -11.848563 0.91009164 12.875
22.765993 -11.334709 0.93803239 13
22.781979 -10.92081 0.95784396 12
22.422365 -9.4972095 0.99847925 11
22.586845 -9.1660662 0.94966251 12.033166
22.758547 -6.9581203 1.1206772 15.065
22.618795 -6.1916199 0.9045977 14.571625
22.985048 -11.850903 -1.7649261 2.4411764
22.944832 -11.30941 -1.9694645 0.5
23.043333 -10.991156 -1.9592508 0.33333334
22.979727 -10.560751 -1.9440783 1.25
22.973263 -10.183997 -1.9352753 1.75
23.052521 -9.7294655 -1.803476 2.1611111
23.084146 -9.4005489 -1.7772127 3.0984848
23.023273 -9.1142969 -1.7352245 2.0999999
23.021704 -11.885389 -1.4131999 3.8037038
23.117815 -9.6933136 -1.4015977 3.9949493
23.129066 -9.4106684 -1.3789659 4.630435
23.044632 -9.1124601 -1.4116715 2.6194446
23.019115 -11.903091 -0.99673569 6.1086016
23.12451 -9.7110329 -1.024626 5.5061727
23.13521 -9.3742371 -1.0342994 5.6833334
23.062737 -9.0937786 -1.0463277 5.1666665
23.111824 -8.5888863 -0.90424442 5.3333335
22.996107 -11.917989 -0.58198166 8.3884621
23.137831 -9.70541 -0.65219748 7.5128207
23.159533 -9.4052372 -0.65131986 7.3177085
23.137789 -8.9590836 -0.62296486 7.5378795
23.168079 -8.6591082 -0.60338634 7.7904763
23.009388 -7.3045855 -0.63002706 8.0176001
23.136065 -5.6055779 -0.44681469 8
22.885281 -5.5840855 -0.4476687 8
22.99646 -11.934769 -0.18155076 10.282609
23.139282 -9.7232046 -0.21914177 9.3846836
23.162361 -9.3797092 -0.21077573 8.8771935
23.107119 -9.0200491 -0.1911609 10.186349
23.185074 -8.6678762 -0.18477976 11.25
22.937998 -7.3408422 -0.39539704 10
23.003942 -5.6915703 -0.20998697 9.166667
22.977924 -11.949315 0.18290932 11.743477
23.151726 -11.246944 0.12012292 8.0585003
23.146217 -9.7349968 0.18200503 10.864962
23.169001 -9.3990107 0.19280608 10.276316
23.113733 -9.0513248 0.14901398 12.220732
23.189203 -8.7121592 0.031557094 13
23.014523 -5.9256024 0.25385275 11.8125
23.129622 -12.004424 0.7709322 12
22.979752 -11.964758 0.58426726 11.733923
23.159103 -9.7377291 0.61334586 11.366667
23.177011 -9.4304123 0.63530523 11.512819
23.1908 -9.0551205 0.58052862 12.738095
22.986959 -6.0963693 0.63321787 13.416667
23.175022 -5.9907007 0.46666884 12.5
23.050671 -11.914802 0.88165581 12.666667
22.82983 -11.024325 0.93405604 14
22.844046 -10.582743 0.95616436 13
22.864336 -10.253121 0.97139043 12.666667
23.103098 -9.7797623 0.89408642 11.880813
23.116749 -9.4358845 0.94311041 12.013091
22.915155 -9.1456451 0.96372157 12.54875
23.054296 -6.2375669 0.92585903 14.196438
23.370951 -11.890827 -1.7985097 2.2166667
23.379463 -11.344937 -1.9717563 3
23.436916 -11.062513 -1.9652218 3
23.512386 -10.635612 -1.9566923 3
23.56357 -10.285867 -1.9504193 4.5
23.414688 -9.766736 -1.751909 2.9166667
23.432041 -11.928152 -1.3957871 4.4364586
23.417397 -9.7644587 -1.4032891 3.0275362
23.463263 -5.5712905 -1.2851323 4
23.40012 -11.945952 -0.97823149 6.25
23.410456 -9.7698669 -1.0194764 5.6202898
23.471609 -5.5348225 -1.0142697 5.5
23.532726 -5.0071487 -0.93942761 6
23.429333 -11.963871 -0.58224243 8.0650005
23.349075 -10.009176 -0.67117101 7
23.421005 -9.7919502 -0.61873525 7.8518519
23.202158 -9.0944843 -0.69199753 7
23.313839 -7.7371254 -0.52426809 8.9157495
23.363071 -7.5848446 -0.60835493 8.0784998
23.535208 -5.6791544 -0.61069274 7
23.457661 -5.532619 -0.47289306 8.0944996
23.488354 -12.003767 -0.055296987 13.573
23.387447 -11.974924 -0.21495901 9.7685184
23.393822 -9.8023386 -0.20485085 10.172031
23.201731 -9.2116547 -0.25486767 8
23.209805 -9.136095 -0.22587216 8
23.206709 -8.5969839 -0.21194454 10.722222
23.325577 -7.6232553 -0.2318486 11.166667
23.450859 -5.7406363 -0.21361285 8.8888884
23.518547 -5.5726247 -0.1601586 10.2
23.471153 -12.011534 0.25873202 12.058681
23.32423 -11.988259 0.16986357 12.089743
23.208673 -10.021067 0.15823916 8
23.396898 -9.8126936 0.15650333 11.075556
23.209597 -9.238163 0.19934751 9.166667
23.209669 -8.9958029 0.19392775 11.112249
23.230957 -8.5777292 0.18573806 14.0315
23.330309 -7.6372476 0.053026747 13.5
23.425632 -6.013895 0.31055921 13.25
23.393736 -5.9402471 0.22803557 11.776033
23.406675 -12.024702 0.63350642 13.070416
23.400017 -9.835948 0.57179224 12.337516
23.217323 -9.328968 0.65872055 10.296928
23.216372 -9.02248 0.58274108 12.1
23.313768 -8.387826 0.60311723 14.0585
23.436747 -6.0925918 0.60951412 13.958333
23.25798 -5.99614 0.58337796 13
23.438465 -12.044603 0.84736359 13.333333
23.334198 -11.842216 0.91520423 14.34625
23.351917 -11.401384 0.9375121 12.268469
23.415867 -10.988201 0.95468593 11.421801
23.405787 -10.627761 0.95625186 12.221201
23.339361 -10.214098 0.96469581 11.8
23.33172 -9.8485155 0.94549584 12.25
23.208942 -9.3509541 0.83161134 10.666667
23.21804 -9.110898 0.85395676 13
23.392515 -6.303112 0.95017081 14.25
23.829384 -11.82626 -2.0073328 2.8
23.761986 -11.9085 -1.8286328 2.8333333
23.837145 -11.39438 -1.9899948 2
23.861094 -10.980921 -1.9785384 2.25
23.795973 -10.631234 -1.9632893 3.3333333
23.909094 -10.215318 -1.9530718 2
23.793056 -9.8044128 -1.7614462 1.9404762
23.730511 -11.958247 -1.4263667 4.3476191
23.767031 -9.7934399 -1.3977174 4.474359
23.88088 -5.6007938 -1.2835717 4
23.67548 -5.579433 -1.2827618 4
23.937876 -1.8050768 -1.3998395 4.6666665
23.8993 -12.014445 -0.9232437 6.6666665
23.742186 -11.984231 -0.97579604 6.2745099
23.807753 -9.8123903 -1.0274909 5.7177086
23.791613 -5.630805 -0.84610707 6.3333335
23.694586 -5.5743427 -1.0062442 5.5
23.772484 -4.4185071 -0.90709895 6
23.779587 -4.2250147 -0.87445748 6
23.813705 -3.8713007 -0.8771584 6
23.968895 -1.7799629 -0.98746383 6
23.987093 -1.4720353 -0.9281649 6
23.816891 -12.012496 -0.5243485 8.2523813
23.676363 -11.994904 -0.55056685 8.1999998
23.787766 -9.8249855 -0.63139594 7.5277777
23.788847 -5.6967154 -0.57749063 7.5714288
23.652267 -5.5866933 -0.7123847 7
23.971594 -1.7775296 -0.61809462 7.25
23.803307 -12.024471 -0.18517365 9.7842293
23.680737 -11.993907 -0.13742247 9.02075
23.784704 -9.8441916 -0.21336935 9.4873018
23.794233 -5.7951264 -0.20316902 9.5317459
23.682178 -5.5996065 -0.38004377 9
23.818325 -12.0489 0.15727499 11.36325
23.768614 -9.8620224 0.20729412 11.61
23.829039 -6.040576 0.26967761 11.857142
23.74962 -5.8949547 0.20566271 11.880952
23.941439 -1.7885207 0.21541621 10
23.827221 -12.067493 0.58516514 12.146726
23.762207 -9.880271 0.64604247 12.515154
23.816103 -6.1353984 0.61816484 13.6875
23.756952 -5.9580808 0.57733858 14.125001
23.704552 -4.7887483 0.59895033 12.0735
23.887104 -12.067548 0.84731859 13
23.84292 -11.851294 0.88544226 12.00905
23.854883 -11.400882 0.8942399 11.681999
23.818754 -11.031265 0.90218157 11.011625
23.789688 -10.578477 0.94187099 11.61965
23.798302 -10.14704 0.96673626 11.185166
23.744453 -9.8886595 0.92361122 11.182834
23.75622 -9.5985546 1.0203565 9.0605001
23.75248 -7.340692 1.0643028 15.0625
23.859983 -6.427886 1.0471053 15
23.842916 -6.3390503 0.91979724 14.514475
23.95668 -5.8031049 0.80584151 15.0805
23.7033 -5.0072279 0.81736642 13.073
23.986275 -1.8205708 1.179828 13
23.973215 -2.9872267 1.8588289 14.07325
24.152008 -11.738842 -2.0114868 4
24.246964 -11.397161 -2.005461 4
24.253729 -12.010324 -1.7984922 2.8
24.130493 -11.989635 -1.8033293 2.2407408
24.071445 -11.256104 -1.9915221 3.5
24.112825 -11.000304 -1.9842358 4
24.162096 -10.59015 -1.9741125 3.8333333
24.18294 -10.194071 -1.9602886 3.25
24.213385 -9.8527441 -1.7629312 2.3981481
24.230484 -12.017356 -1.4014139 4.2745099
24.097425 -11.991118 -1.5105675 3.9047618
24.185976 -9.8431416 -1.4145464 4.1314812
24.170115 -5.6373997 -1.2952521 4
24.142721 -1.7930022 -1.2989398 5
24.035435 -1.3989682 -1.4915271 5
24.146629 -0.8377372 -1.5090396 5
24.176947 -12.031754 -0.98462391 6.3269229
24.050341 -11.998952 -1.1699648 5.6666665
24.207369 -9.856164 -1.0529962 5.5916667
24.145935 -5.6442885 -0.95645988 5.75
24.01161 -5.5807095 -1.1679491 5
24.141253 -1.7790644 -0.9322542 6
24.032398 -1.3750684 -0.9494527 6
24.059788 -1.0909622 -0.95217943 6
24.247759 -0.48103926 -0.95627701 6
24.276922 -0.14081408 -1.0276778 6
24.308619 0.037259761 -0.93574101 6
24.391479 2.1998162 -1.1107031 6
24.201174 -12.053182 -0.54827428 8.1999998
24.210077 -9.8742304 -0.62168026 7.6551723
24.376081 -6.045639 -0.64663899 7
24.099304 -5.7209477 -0.53580052 7.625
24.091654 -1.7789724 -0.55886835 7.1999998
24.036343 -1.3296375 -0.5759837 7
24.042612 -1.1310396 -0.53329664 7
24.394068 2.2042794 -0.65705544 7
24.178028 -12.064312 -0.22431463 9.8888893
24.214558 -9.8929844 -0.20801264 9
24.225861 -5.8689814 -0.20038982 9.3166666
24.111258 -1.8045605 -0.16932607 8.3459167
24.036514 -1.3892769 -0.18668395 8
24.055038 -1.1280308 -0.16301122 8
24.196157 -12.089264 0.19214858 11.984045
24.194178 -9.9069576 0.19537002 11.181666
24.175459 -6.0585256 0.22786866 11.214286
24.136206 -5.9691415 0.11400681 10.777778
24.131123 -1.8191117 0.20709732 9.25
24.058521 -1.3955032 0.2059862 9.0125837
24.105574 -1.1432877 0.25808513 9.0253334
24.335159 0.069554955 0.034949571 8.0679998
24.215693 -12.110699 0.60973388 12.769231
24.187813 -9.9252329 0.58356827 11.983334
24.1745 -6.2103744 0.5998379 13.486111
24.071634 -1.780561 0.5893845 10.343166
24.070145 -1.4081177 0.63096666 10.153643
24.103724 -1.1098285 0.65701097 10
24.343317 -0.17805992 0.78798217 10.077
24.226665 -12.103066 0.87056929 13.75
24.294785 -11.887546 0.87764245 13.333333
24.257881 -11.407941 0.89741898 14.25
24.049084 -10.900016 0.91419631 13
24.089802 -10.59102 0.9255991 13
24.132036 -10.157166 0.94301295 13
24.222687 -9.9410429 0.87521684 13.077929
24.216694 -6.4648705 1.0232446 14.333333
24.181065 -6.358809 0.8631615 13.666667
24.128313 -1.8114352 0.98148251 11.134438
24.090374 -1.3875922 1.0812237 11.166667
24.099283 -1.108098 0.96867448 11
24.091911 -1.8015881 1.4734695 12.444445
24.09705 -1.374259 1.4496524 12.25
24.142719 -1.1302029 1.4117872 12.038
24.146837 -3.0153725 1.7912072 15.078751
24.050781 -2.1902473 1.8100929 14.044001
24.054417 -1.7983621 1.877346 13.5
24.098295 -1.4275041 1.840134 13.25
24.142635 -0.86054617 1.7585593 14.0885
24.31072 0.110192 1.877412 13.08
24.102354 -2.5598636 2.2144184 13.064
24.05064 -2.0891395 2.3363051 14
24.09321 -1.8928258 2.2468419 14.0375
24.11714 -1.4301424 2.1472363 14.018875
24.194977 -1.1649143 2.2922127 14.076
24.251217 -0.59437394 2.2356579 13.576125
24.279697 -0.086066507 2.1899557 14.082
24.396807 0.69009548 2.2715056 13.078
24.114126 -1.6256762 2.4326432 14
24.164248 -1.4308506 2.6465631 15.03775
24.197538 -1.1286517 2.6497624 15.0765
24.225851 -0.68612784 2.4400814 15.0815
24.299057 -0.1568325 2.5693779 14.5795
24.355772 0.1634289 2.619421 14.0775
24.380945 0.78306538 2.4126747 14.0825
24.103956 -1.8558488 2.8425193 15
24.576796 -12.023574 -2.0117359 0
24.617922 -11.851791 -2.0127406 1.6666666
24.650139 -11.438793 -2.0069754 1
24.451809 -11.122964 -2.0003724 3
24.54093 -12.03603 -1.7802391 2.6428571
24.708183 -11.417646 -1.9916713 2
24.714252 -11.002373 -1.9844452 2.5
24.691898 -10.690743 -1.9773744 3
24.666611 -10.175022 -1.968377 2.5
24.588306 -9.8776751 -1.7639776 2.2666667
24.631321 -12.06603 -1.3687836 4.1444445
24.582977 -9.8868484 -1.3944167 4.1578946
24.634912 -2.3708642 -1.4992218 5
24.589417 -12.079508 -0.94936126 6.5138888
24.578781 -9.899231 -1.0451329 5.7941175
24.616148 -1.8461709 -0.93303907 6
24.587572 2.2225578 -0.99415332 6
24.524363 2.7124925 -0.98121244 6
24.553492 2.8682473 -1.0373998 6
24.706562 3.3918064 -1.0067959 6
24.753662 3.9386482 -1.0564858 6
24.60144 -12.093784 -0.6151998 8.1642857
24.600691 -9.9166584 -0.63561565 7.6799998
24.490183 -5.802597 -0.55073535 7.75
24.634666 -1.8621659 -0.59175199 7
24.554537 2.1784048 -0.54725176 7
24.536766 2.6977448 -0.49307418 7
24.564156 2.9106228 -0.48990461 7
24.725067 3.8412201 -0.47658873 7
24.614511 -12.11225 -0.23586318 10.270176
24.580082 -9.9326859 -0.20799991 9.7368422
24.656685 -6.0015707 -0.092735209 9.666667
24.526302 -5.9094567 -0.24456592 8.9330835
24.642359 -1.8744886 -0.246742 8
24.481926 2.1744249 -0.17262797 8
24.488882 2.4077058 -0.080422714 8.0834999
24.64415 -12.138955 0.16991743 11.527778
24.576752 -9.9487934 0.17725714 11.04178
24.535732 -6.0962877 0.14597622 11.071428
24.604565 -1.8875638 0.20651019 9.3584166
24.519749 2.154546 0.24969496 8.833333
24.548412 2.6934044 0.032796029 8
24.571289 2.8562243 0.040323112 8
24.782976 4.0051918 0.094001949 8
24.61095 -12.157787 0.58885378 13.407407
24.773664 -10.001806 0.74918854 13
24.574049 -9.9684677 0.57541591 12.425
24.541639 -6.4287343 0.79377621 14
24.525389 -6.2905207 0.58937502 13.291667
24.561821 -1.8990046 0.64504266 10.78975
24.517286 2.1349888 0.65386575 9.75
24.552095 2.6775644 0.48622921 9.04175
24.586006 2.8562787 0.57402164 9
24.784424 3.935647 0.65966707 9
24.694071 -12.174537 0.82428092 13.5
24.506147 -11.903197 0.89384395 10.04525
24.446091 -11.376341 0.89352715 11.511499
24.473841 -11.009215 0.90858161 12.511687
24.506689 -10.626409 0.92246878 12.674583
24.560591 -10.175941 0.94440329 12.809649
24.505894 -9.9718895 0.89613569 12.333333
24.486662 -7.1748395 1.0443509 15.0635
24.707798 -6.4969306 0.9617551 14.666667
24.695709 -1.9288682 1.0753826 12
24.545193 2.1220934 1.0274451 10.5
24.536386 2.5603895 0.9766382 10
24.610304 2.8704131 1.1141431 10
24.636263 -1.9374527 1.3214806 12.383167
24.593908 2.1036177 1.4422615 11.346833
24.528 2.6255343 1.329159 11.056834
24.779043 3.9035654 1.2290974 10
24.683414 -1.9583074 1.7786516 13.7175
24.596436 2.1058452 1.7489446 12.020375
24.572645 2.6874251 1.7524672 11.6341
24.632484 2.9245188 1.6675957 11
24.45886 1.1788087 2.3782399 13.0785
24.474813 1.4746394 2.172471 13.081
24.456844 1.713552 2.1681926 13.0415
24.582634 2.6229565 2.2669966 12.5
24.624666 2.9561377 2.1625049 12.389667
24.72484 3.2314408 2.2751992 12.074
24.73704 3.9360218 2.1169734 12.084
24.409649 0.68472534 2.7486784 14.078
24.487907 1.482163 2.6537862 14.081
24.474739 1.742187 2.6544709 14.0415
24.643621 2.7071836 2.7418997 13
24.663662 2.8376858 2.4769056 12.57725
24.769003 3.8948669 2.6657114 12.577999
24.610399 1.3781693 3.0588901 15.0825
24.620279 2.1878264 2.9541562 13.0705
24.569818 2.6728776 2.8892593 14
24.676151 2.8331883 3.047106 13.57725
24.637587 2.1808932 3.5426953 14.0705
24.632902 2.7063913 3.3486886 14.333333
24.670931 2.6417162 3.8762233 15
24.694448 2.8042595 3.9210703 15
25.08902 -12.094354 -2.0148144 4
24.998533 -11.795697 -2.0310795 2
25.11174 -11.267478 -2.0131497 2
25.154249 -10.973757 -2.0027578 2
25.009266 -12.078215 -1.7835031 2.7368422
25.158878 -11.883287 -1.7023954 0.5
24.832184 -11.006208 -1.9819143 0
25.023125 -10.645127 -1.9807321 1
25.024267 -10.199349 -1.9643575 1
24.991564 -9.9238548 -1.7306696 2.3809526
25.055822 -12.104527 -1.3945841 4.3611107
24.991804 -9.9317503 -1.4260917 4.0142856
24.867081 -1.9043837 -1.5250745 5
24.871853 6.1798182 -1.2529026 6
24.962914 -12.109914 -0.96078867 6.4266663
24.976583 -9.9416904 -1.070123 5.5796294
24.827997 -1.8706007 -0.90865612 6
24.980011 2.1364529 -1.0047629 6
24.932241 6.2424335 -1.0955826 6
24.967966 6.7307701 -1.0883929 6
24.991175 6.8998337 -1.0915644 6
25.088854 8.133544 -1.1648712 6
25.132936 8.5872355 -1.1758748 6
25.18434 8.9635181 -1.1836872 6
24.988337 -12.129407 -0.56951135 8.3669586
25.023102 -9.9627151 -0.64817733 7.6363635
25.010887 -5.9020557 -0.4502534 8
24.824244 -1.8830595 -0.52590895 7
25.001841 2.1193204 -0.50059074 7
24.966097 6.1691365 -0.49447715 7
24.978483 6.6060009 -0.43576533 7
25.010069 6.9139423 -0.43132961 7
25.130856 8.2492342 -0.4531357 7
25.184734 8.7956753 -0.4462736 7
25.031607 -12.160035 -0.20076533 9.875267
25.123056 -10.003694 -0.048136365 10
24.990028 -9.9755621 -0.24494161 9.1999998
24.997206 -6.0800486 -0.080644839 9.666667
24.940887 -5.9874587 -0.22779858 9
24.868042 -1.9494867 -0.146265 8.0365
24.948244 2.0980711 -0.067533754 8
24.873528 6.1499262 -0.071854383 8
25.059675 -12.187773 0.22588523 11.692098
25.089453 -10.012702 0.25755817 11.770834
24.950058 -9.9850636 0.15268806 11.436364
24.973911 -6.2033553 0.21053529 11
24.907434 -2.0118933 0.23320393 9.073
24.868803 -1.9204483 0.23790389 9
24.897976 2.0999348 0.27086076 8.666667
25.030817 6.1600842 0.19470277 8.0091877
24.976006 6.4541664 0.16059954 8.04175
25.020401 6.923059 0.18029693 8.0424995
25.030037 7.2377467 0.13755615 8
25.179327 7.9286685 0.24928322 8.0760002
25.159218 8.2471418 0.2649695 8.04175
24.984663 -12.19193 0.56884992 11.983312
25.031857 -10.024151 0.62499833 12.987181
24.873188 -9.9940205 0.5694257 11
24.968035 -6.4419293 0.7200191 13.375
24.929413 -6.3219724 0.49397218 12.333333
24.932632 -2.0038245 0.61985844 10.073
25.009226 2.0847399 0.55066264 9
24.933014 6.1374002 0.60329384 9
24.922138 6.4177608 0.70355719 9
25.062498 7.2990603 0.78550017 9
25.19581 7.8406119 0.44161743 8.0745001
25.014589 -12.128463 0.86656946 12.7042
25.10026 -11.748953 0.88086122 12.673749
25.080872 -11.428638 0.90705651 11.767
25.066254 -11.005081 0.91325253 10.527875
25.019888 -10.589693 0.90892273 12
25.10737 -10.100797 0.91454947 12.511625
24.91498 -9.9769592 0.85740906 9.5222502
24.8881 -6.5491424 0.94701236 14.5
24.979692 2.0635142 0.99049139 10
25.010544 6.1197963 0.98997742 9.4285717
25.021786 6.6290793 0.86922753 9
25.049225 6.9049449 0.89830935 9.0412502
25.166576 8.2131348 0.97873628 9
25.031677 2.0267847 1.5739601 11
25.006784 6.1067867 1.4000907 10
25.013678 6.6108809 1.4641103 10
25.090652 7.0843387 1.5759717 10.04125
25.090363 7.3460326 1.4413499 10
24.969151 -2.0211136 1.8062432 13.073
25.167627 2.0288005 1.6250041 11
25.053341 4.5815001 1.9150344 11.07475
24.986448 6.0923691 1.7669206 10.8
25.178024 8.1331081 1.6937518 10
24.973991 1.6217525 2.0118566 12.078
24.815973 3.9304972 2.3977227 12.0745
24.930759 5.0038681 2.3367631 11.0725
24.965443 5.333909 2.0120089 11.0755
24.979223 5.8705559 2.0875471 11
25.017008 6.2009559 2.1352136 11
25.063847 6.5884118 2.1914062 11
25.125734 7.3335481 2.1840868 11.04125
24.880119 4.5291853 2.5022106 12.075
24.951828 5.3513579 2.530642 12.07925
24.954563 5.7611465 2.5159311 11.771125
25.031668 6.1403308 2.7861454 12
25.125906 6.4347243 2.5367863 11.0735
25.15266 7.4580588 2.7905114 12
24.966427 6.0408778 3.0471249 13.04375
25.054289 4.8854136 3.4864311 14.084
25.037952 6.0129061 3.5154102 13.54375
25.131639 6.4093528 3.2695129 12.0735
25.19416 7.0258727 3.3740342 12.074
25.00807 4.8779793 3.9111586 15.087
25.068068 5.9983249 3.7677522 14.0845
24.987288 6.1117706 3.7794132 14
25.061056 4.8864045 4.1000509 15.084
25.066339 5.9708781 4.413281 15.0845
25.571293 -12.006902 -2.04354 4.5
25.570486 -11.717752 -2.0248158 1
25.268852 -12.093749 -1.774395 4.5
25.281986 -11.933944 -1.7728146 4.2727275
25.569332 -10.004429 -1.8424566 4
25.390594 -9.965517 -1.7307825 2.5714285
25.349075 -12.12547 -1.3687052 4.8055553
25.313118 -11.931706 -1.5464364 4.4285712
25.599548 -10.013261 -1.4567345 5
25.412197 -9.9817076 -1.3971757 3.6621211
25.426985 -12.154556 -0.95058346 6.4849997
25.513889 -10.006853 -0.86439347 6.5
25.398468 -9.9880075 -1.0331097 5.8095241
25.282949 2.0904198 -1.0707978 6
25.363516 6.1242571 -1.1089772 6
25.204771 8.8256426 -1.1271186 6
25.442839 -12.185766 -0.57786107 8.7692127
25.47105 -10.012424 -0.61488789 8.0066662
25.289783 -9.9842787 -0.68369406 7.5714288
25.290272 2.0810142 -0.48292002 7
25.340864 6.1053662 -0.45828658 7
25.219982 9.0035582 -0.44385168 7
25.420918 -12.206882 -0.21724422 9.8669844
25.441521 -10.02562 -0.17958216 10.321053
25.243116 -9.9985838 -0.27746999 10.25
25.212456 2.0751214 -0.084766857 8.0799999
25.426142 -12.220428 0.17465916 11.718802
25.412283 -10.040319 0.19937126 11.208334
25.598793 -9.2633858 0.18625169 8.0609999
25.27947 2.0512085 0.086175837 8
25.388544 6.0716233 0.21830636 8
25.214264 8.8870935 0.29095745 8
25.347662 -12.2395 0.62886804 12.596128
25.384327 -10.058036 0.59690368 12.5
25.574896 -6.3779936 0.45999211 11.5
25.293482 2.0214562 0.57059032 9
25.290415 6.0754447 0.68722546 9
25.269541 8.53897 0.47598472 8.0749998
25.429686 -12.185 0.84794444 12.2
25.42441 -11.825418 0.88415962 11
25.278198 -11.325617 0.89176804 13
25.284 -11.02107 0.90263253 13
25.325233 -10.628527 0.92219162 11.456944
25.377125 -10.140838 0.90180427 12.581447
25.469801 -9.9728985 0.97992665 9.0695
25.392124 -6.5180125 0.81738818 13
25.20369 2.0217843 1.072922 10
25.358751 6.0703554 0.92555743 9
25.20805 7.9479079 0.9600684 9.0760002
25.204268 8.228858 0.87373823 9.0839996
25.205563 8.6257582 1.0103838 9
25.247982 8.9153452 1.0329452 9
25.297565 6.0525308 1.3552067 10
25.213509 1.9892535 1.8390596 12.08
25.358704 6.0342131 1.8662921 10.666667
25.232418 7.9591155 1.6771591 10.076
25.240793 8.530117 1.7414021 10.0415
25.267599 8.9169512 1.7798437 10
25.213169 8.1625872 2.4289453 11
25.249454 8.4993505 2.4768829 11
25.302931 8.9123373 2.5362988 11
25.301741 8.016923 3.1476445 12.076
25.341335 8.534009 2.8309572 11.075
25.303738 6.0060105 3.2223349 12.073
25.301514 8.698041 3.2634599 12
25.349667 9.0697088 3.3295047 12
25.318354 7.8838859 3.834131 13.077
25.383257 8.557044 3.6399026 12.075
25.689426 -11.783499 -2.0463231 2.75
25.743195 -11.423285 -2.0299668 3
25.79192 -11.01861 -2.0166545 3
25.863157 -10.644841 -2.0185368 3.3333333
25.892448 -10.227171 -2.0123131 4
25.817339 -10.531984 -1.9955541 2
25.832245 -10.090332 -1.8593479 2.5111113
25.706177 -9.9982252 -1.7654053 2
25.771505 -12.185939 -1.375793 3.8866665
25.838514 -10.022474 -1.4646983 4.0030303
25.819384 -12.214977 -1.0272145 5.9545455
25.797325 -10.032062 -1.0466744 5.9016666
25.61442 6.087079 -1.1245869 6
25.672915 -14.389146 -0.75889575 9.0054998
25.880018 -12.240023 -0.5930298 8.8148155
25.809044 -10.048528 -0.64111245 7.6754384
25.882385 -6.1527104 -0.53137964 7.6666665
25.821043 -12.246387 -0.22809279 10.490767
25.786922 -10.06189 -0.21948212 9.6600008
25.932987 -6.1953816 -0.17132115 9
25.793699 -12.264096 0.20220569 11.875176
25.791611 -10.081232 0.20094164 11.342105
25.794937 -6.3166943 0.21903175 10.5
25.792208 5.989409 0.19226447 8
25.719681 6.0309172 0.35963148 8
25.783081 -12.282484 0.58336866 12.237154
25.797062 -10.104104 0.59378886 11.845238
25.924099 -12.214215 0.8481012 13.720285
25.775131 -11.839122 0.8416906 10.028167
25.710835 -11.402852 0.85630625 11.017099
25.761871 -10.952309 0.87268823 11.21735
25.723013 -10.590011 0.90126866 12.666667
25.808184 -10.201413 0.87282908 12.441821
25.800573 5.9760766 0.83945054 9
25.670589 6.0165014 1.0745975 9
25.72027 5.9858036 1.489454 10
25.733801 5.9842415 1.7961726 10
25.802603 4.8403611 3.2738192 13.074
25.864769 5.5619884 3.4209762 13.0745
25.69046 5.6718445 3.7798541 14.082
26.137955 -12.101783 -2.0444157 0
26.17733 -11.827341 -2.043323 2.6666667
26.298666 -11.342556 -2.0310836 2
26.360142 -10.891261 -2.022563 2.6666667
26.395506 -10.559348 -2.0052447 0
26.278727 -12.250631 -1.8128517 0.5
26.314034 -11.184886 -1.9303731 6
26.078148 -10.626512 -1.9084572 6
26.211571 -10.076791 -1.8082416 2.5208333
26.237116 -12.251512 -1.3706905 4.1980395
26.203575 -10.064554 -1.392905 3.5884058
26.202662 -12.263667 -0.96910936 6.5304346
26.225916 -10.079866 -0.94816709 6.2166667
26.230507 -12.283748 -0.59199536 8.3812504
26.218817 -10.093976 -0.59131473 8.1764708
26.230274 -12.296101 -0.22847684 10.279921
26.24202 -10.114897 -0.19109747 10.291599
26.217489 -12.315561 0.22030231 11.294053
26.170422 -10.1242 0.19498551 11.741667
26.172314 -12.334113 0.60944492 12.867454
26.052635 -11.978457 0.77979958 9.0419998
26.072302 -11.541072 0.79222381 9.0424995
26.203144 -10.146124 0.58566445 11.906167
26.276772 -12.242615 0.82193714 11.608
26.2069 -11.854294 0.8449465 12.60815
26.192291 -11.474365 0.85612291 12.02918
26.216599 -11.058293 0.86603689 12.220725
26.220793 -10.58777 0.88277155 11.853583
26.203302 -10.220272 0.88315433 12.904472
26.667091 -12.061492 -2.0464344 3.5
26.775286 -11.895064 -2.0648265 2.5
26.746399 -11.543276 -2.0300145 3.5
26.76516 -11.087831 -2.0094767 5
26.408285 -10.530518 -2.0200739 4
26.449335 -10.231639 -2.0146003 4
26.580914 -12.275276 -1.8607931 0.58333331
26.487549 -11.655734 -1.9477564 6
26.610764 -10.106803 -1.7526498 2.5740743
26.619026 -12.298549 -1.3559715 4.536458
26.588526 -10.112741 -1.3970859 4.1958332
26.628805 -12.314335 -0.93553489 6.7266669
26.611656 -10.129406 -0.98818451 6.0062499
26.624109 -12.330107 -0.59088933 8.3666668
26.591198 -10.147314 -0.60749406 8.1621599
26.622059 -12.34196 -0.19149308 10.310198
26.662556 -10.173256 -0.20979193 10.230865
26.598051 -12.356362 0.19911584 12.159091
26.601349 -10.17759 0.19437243 12.103137
26.74329 -9.6084223 0.043268293 8.0699997
26.767515 -12.402203 0.65753001 12.5
26.582483 -12.37053 0.57169962 12.269231
26.635597 -10.197762 0.58587635 12.568627
26.777712 -12.352031 0.83003247 14
26.447289 -11.428745 0.85476583 13
26.506666 -10.905039 0.87336814 13
26.472361 -10.631074 0.87329823 12.021875
26.516319 -10.287392 0.87185329 11.187083
26.955256 -12.222351 -2.05528 0.25
27.076187 -11.746813 -2.0588894 1
26.865519 -11.313088 -2.0437269 2.5
26.8923 -10.947533 -2.0289466 3.25
26.927109 -10.553061 -2.0181301 2.5
27.066133 -10.223453 -2.0064452 2
26.976324 -12.325828 -1.8381953 1.6759259
26.83371 -10.487718 -1.9961156 5
26.98917 -10.172385 -1.9918667 1.75
27.01796 -12.339989 -1.4112613 4.5805554
26.945499 -10.173281 -1.2557615 6
26.983051 -12.353784 -0.96693462 6.6759257
26.97003 -12.36895 -0.59797966 8.29
26.919907 -10.173923 -0.77940744 7
27.106489 -12.403046 -0.11374453 10.777778
26.974869 -12.382223 -0.2529791 9.6955557
26.841852 -10.201241 -0.15152502 8.5306664
26.893373 -9.6448374 -0.13066873 8.0784998
27.060268 -12.413779 0.21536382 11.722222
26.940008 -12.391832 0.17622326 10
26.945293 -10.234304 0.30942798 10.8293
27.036758 -12.424599 0.63817275 12.384615
26.896004 -12.397346 0.44735855 15
26.978559 -10.253834 0.57846135 12.280188
27.041832 -12.192741 0.81790519 11.75
26.998459 -11.873718 0.83248246 12
27.045218 -11.451752 0.84513342 12
27.110779 -11.010219 0.85632968 11.333333
27.12735 -10.669445 0.87427527 12
27.010443 -10.294677 0.87727737 12
27.39057 -12.211355 -2.0783367 3.4000001
27.465122 -11.860954 -2.0863836 4
27.405464 -11.432444 -2.064568 2.5999999
27.330631 -11.009261 -2.0481138 1.6666666
27.327089 -10.599859 -2.0340068 1.5
27.408564 -10.329205 -2.0351529 2
27.380224 -12.370737 -1.8284359 2.3999999
27.548717 -12.409791 -1.3289052 4.458333
27.364691 -12.379179 -1.416973 4.0578947
27.446486 -10.153171 -1.3472524 3.6416667
27.529808 -12.419509 -0.96980155 6.5625
27.339811 -12.394015 -0.96348232 6.6166668
27.458977 -10.154265 -0.98312438 5.984127
27.423004 -12.419584 -0.599262 8.7039223
27.223288 -12.395151 -0.45972449 8.04
27.43676 -10.182497 -0.56056952 8.6740599
27.380007 -12.429824 -0.19730334 10.403056
27.436522 -10.172046 -0.27559814 10.552567
27.36956 -12.446758 0.23979366 12.052083
27.475 -10.246701 0.34236744 13.367583
27.316484 -12.45565 0.56929165 12.755
27.42684 -10.301622 0.52020568 11.2196
27.326916 -12.457024 0.8095383 13
27.354889 -12.276432 0.81836545 12.694417
27.393984 -11.808531 0.82951427 12.875251
27.362391 -11.447749 0.83387607 12.007251
27.417892 -10.983379 0.84725392 11.8
27.452253 -10.629243 0.86321467 12
27.421541 -10.366957 0.87535405 11.5
27.847557 -12.274513 -2.081923 0.2
27.972204 -11.967238 -2.0827155 1
27.626583 -11.283212 -2.0696042 4
27.687376 -10.884763 -2.0596764 4
27.662041 -10.59339 -2.0468564 3
27.773422 -10.302553 -2.0271349 3
27.828045 -12.427312 -1.7893771 1.9523809
27.614176 -12.392286 -1.85238 2.3333333
27.874884 -10.01511 -1.9747553 0
27.811531 -12.435605 -1.3915777 4.6235294
27.690708 -12.395483 -1.4458131 6
27.632244 -10.177857 -1.3309672 3.75
27.807188 -12.44914 -0.97188461 6.6805558
27.623693 -10.195268 -1.0094106 5.9629631
27.945576 -8.1566229 -0.93392146 5.5833335
27.831755 -12.464609 -0.61007065 8.4222221
27.607727 -10.207961 -0.58478427 8.5
27.953321 -8.1870422 -0.52354264 9
27.785315 -12.475507 -0.2049319 10.635552
27.614496 -10.201183 -0.29473341 10.833333
27.971478 -8.2099228 -0.15160888 12.055556
27.829632 -12.498098 0.18045269 12.044323
27.613308 -10.302417 0.31462634 11
27.947231 -8.2294722 0.13723172 14.375
27.824736 -12.510917 0.58253342 13.300654
27.962362 -12.208026 0.78837252 11.5
27.991062 -11.958167 0.79209536 11
27.786638 -10.343186 0.579557 12.837031
27.606518 -11.413807 0.84916168 15
27.657326 -10.958405 0.86324763 15
27.67639 -10.557657 0.8756991 15
27.677118 -10.254365 0.88043797 15.025
28.309887 -12.442747 -2.0769887 2.6666667
28.231707 -12.209991 -2.0901289 2
28.123621 -11.769869 -2.07811 1
28.231047 -11.388927 -2.0679252 1.25
28.1115 -11.022138 -2.0556369 0.33333334
28.123219 -10.575283 -2.0484302 0.66666669
28.060246 -9.9814835 -2.0333049 1
28.221636 -12.46812 -1.7837873 3.05
28.209507 -10.242312 -1.7975805 2.9655173
28.098089 -8.1355457 -1.6490312 0
28.0763 -14.493348 -1.4023618 5
28.225269 -12.482551 -1.375599 4.9086957
28.245321 -10.276486 -1.4129534 3.8879032
28.085358 -8.1368952 -1.4519004 1.5
28.086586 -14.512401 -1.0901624 6.5
28.253033 -12.50143 -0.95575863 6.784615
28.259985 -10.30448 -0.97763878 6.2544122
28.066332 -8.1481657 -1.099164 4.2916665
28.094093 -14.542459 -0.63901764 8.666667
28.245485 -12.513649 -0.60938549 8.4333334
28.251698 -10.316333 -0.55678499 8.6999998
28.365049 -7.9205828 -0.6589185 7.75
28.085464 -14.566072 -0.25361606 10.5
28.201948 -12.525075 -0.21877748 10.341666
28.254084 -10.310979 -0.20312092 10.76641
28.108795 -8.2064104 -0.14508589 12.076
28.395468 -7.923799 -0.21178722 11
28.224689 -14.580519 0.085185155 12.014875
28.228012 -12.547382 0.21113718 11.788462
28.315998 -10.401523 0.39123815 14
28.222486 -10.314753 0.17770994 11.62309
28.39175 -7.9628601 0.13561843 13.5
28.241695 -12.553763 0.63165355 12.846344
28.347879 -12.177391 0.74602193 9.5209999
28.246468 -11.819373 0.77010143 10.014167
28.370152 -11.588923 0.78647983 10
28.25598 -10.403301 0.5644685 13.75
28.1343 -10.387979 0.51424289 11.894222
28.15481 -12.47766 0.80601841 13.5
28.244768 -12.177412 0.81194848 14
28.097095 -11.687333 0.81797051 12.5
28.114859 -11.440294 0.82100689 12
28.140284 -11.021502 0.83154905 11.8
28.200357 -10.566362 0.8518135 12
28.251139 -10.394659 0.8594445 13.048
28.633709 -12.484806 -2.0445926 1.4
28.518127 -12.171484 -2.1107991 4
28.582586 -11.877133 -2.1014111 4
28.636263 -11.483682 -2.0862126 3.75
28.5611 -10.996134 -2.0672534 3.25
28.594618 -10.568023 -2.0508511 3
28.765347 -9.8127613 -2.006557 1
28.597826 -12.512246 -1.7846649 2.55
28.625853 -10.337186 -1.8021719 1.8888888
28.705721 -9.9275169 -1.9920408 1
28.621702 -7.8314509 -1.703051 0.53333336
28.601971 -12.524715 -1.3955345 4.9749999
28.613602 -10.350616 -1.3814566 4.1452379
28.510414 -7.9473238 -1.4519186 2.0250001
28.618626 -12.541407 -0.99099636 6.6746035
28.634789 -10.365641 -0.96038967 6.4516664
28.527031 -7.946413 -0.99847305 5.2857141
28.614056 -12.557054 -0.59890395 8.523016
28.620356 -10.37968 -0.6017555 8.4722223
28.723778 -8.0141048 -0.55555469 8.5
28.517639 -7.9581232 -0.6599791 7.75
28.59519 -12.571531 -0.19790065 10.574965
28.67444 -10.407826 -0.14911073 11.266666
28.541834 -10.383796 -0.24078651 10.225758
28.560638 -8.0248156 -0.19139931 11.166667
28.459433 -7.9580288 -0.2679882 10.6
28.787457 -14.617292 0.081809834 11.697499
28.596487 -12.590407 0.19454122 12.704545
28.710421 -10.424863 0.22760507 12.229167
28.474068 -10.332624 0.21947181 11.843634
28.682947 -8.058301 0.23639041 14.055556
28.459698 -7.9729557 0.27337065 14.380952
28.621031 -12.59729 0.5540269 12.458333
28.402927 -11.27527 0.79733485 10
28.479496 -10.994368 0.7609362 9.0432501
28.600348 -10.427587 0.59516478 12.857142
28.454012 -11.74752 0.81250012 14.532499
28.513718 -11.377409 0.83095354 14.333333
28.510952 -11.019623 0.8301397 13.5
28.497105 -10.505522 0.83618355 13.149857
28.562498 -10.306674 0.85217118 15.05
28.981371 -12.472574 -2.110213 0.66666669
29.007036 -12.164124 -2.1082921 1
29.073229 -11.872875 -2.1004117 1
28.917942 -11.353135 -2.0857828 2.3333333
28.946045 -10.909662 -2.073168 3
28.976017 -10.62673 -2.0652122 3
28.979748 -10.384263 -2.0240991 0.5
28.987108 -14.576715 -1.7118964 4
29.000616 -12.557367 -1.8089693 2.9958332
28.979279 -10.374192 -1.7924197 2.8214285
28.886452 -9.7619162 -1.760623 0.33333334
28.886446 -9.5069275 -1.9889599 0
29.186237 -8.7348814 -1.9651916 0
28.994595 -7.8911796 -1.7830532 0.33333334
29.127142 -14.587982 -1.3833671 5.4166665
29.029301 -12.57437 -1.3880154 4.9079366
29.09314 -10.412971 -1.3727154 2.9909093
28.971401 -10.387947 -1.4285971 4.0384617
28.906397 -9.7763605 -1.3644712 3.3999999
29.04785 -8.0346375 -1.4373616 2.5
29.122749 -14.612825 -1.0042192 7
29.03973 -12.592257 -0.98655146 6.7166667
29.066839 -10.417348 -0.93407744 6.522222
28.933456 -10.393112 -1.0761685 5.9166665
28.922859 -9.7850065 -1.0097477 5.9270835
29.059711 -8.028738 -1.0162284 5.3333335
29.125357 -14.627798 -0.64544481 8.5
29.015268 -12.605758 -0.60421014 8.756649
29.016418 -10.429276 -0.57581455 8.4288883
28.924421 -9.8117075 -0.60388857 8.75
29.027628 -8.0591116 -0.55124372 8.5
28.994373 -12.618695 -0.21717876 10.447878
28.810808 -11.973726 -0.14279379 8.0764999
29.027735 -10.449119 -0.23225158 10.92475
28.931864 -9.8286381 -0.1997149 11.5375
29.111807 -8.1020861 -0.15367962 11.166667
29.040728 -12.639704 0.18308952 11.236201
29.019264 -10.456431 0.16156925 11.658523
28.979237 -8.11203 0.28847328 14.166667
29.013889 -12.640409 0.63118249 12.960784
28.9638 -12.221601 0.78117925 12.25
28.987967 -11.79557 0.79339719 10.666667
28.976664 -11.413901 0.79775733 12
28.956287 -10.465244 0.59672356 12.45556
28.973051 -10.051439 0.73055834 14.051
28.891134 -8.0695095 0.41320416 15.072
29.074459 -11.381131 0.81007302 10
29.038347 -11.034057 0.81257856 11.333333
29.114388 -10.683363 0.83228838 10.68225
29.382416 -12.587742 -2.0474222 1.4444444
29.221596 -11.567238 -2.0934966 1
29.272057 -11.017411 -2.0801961 1
29.250193 -10.530871 -2.0625896 0.5
29.406063 -12.605663 -1.7758334 2.7539685
29.453527 -10.431698 -1.815327 2.3518519
29.529684 -9.3530359 -1.9961745 0
29.269938 -8.8603239 -1.9725305 0
29.514977 -8.1622438 -1.892854 0
29.255325 -7.9815788 -1.8680826 0
29.496929 -7.2273436 -1.8371708 1
29.208088 -7.0246782 -1.8237348 1
29.392786 -12.615162 -1.4092995 4.8253336
29.450972 -10.447146 -1.3664076 4.6157894
29.268541 -8.0352631 -1.3851209 3
29.206726 -14.615969 -1.0055392 7
29.390604 -12.631359 -1.0027511 6.6920633
29.41572 -10.456654 -0.94249159 6.6588235
29.280897 -8.0568361 -0.97592837 5.6666665
29.208769 -14.630641 -0.6430046 8.5
29.41592 -12.653887 -0.58697969 8.7940474
29.421345 -10.473675 -0.57136858 8.229167
29.42243 -8.1209669 -0.613428 8.0555553
29.425961 -14.663871 -0.1715358 10.033
29.37816 -12.663571 -0.17503175 10.337012
29.397537 -10.489966 -0.18430051 10.36508
29.45298 -8.1474981 -0.23380947 10.5
29.409781 -12.689674 0.2068775 12.305053
29.424229 -10.510488 0.20261985 11.968421
29.438818 -8.2115898 0.14786316 12.899638
29.370913 -12.663064 0.63389671 12.269881
29.435946 -12.168708 0.78301704 13.521375
29.430902 -11.835423 0.77263254 12.855208
29.422997 -10.519386 0.61633694 12.433333
29.529619 -8.197772 0.4782269 14.833333
29.27783 -11.668863 0.80770767 15
29.361816 -11.357579 0.81258619 14.5
29.365715 -10.98252 0.82519871 14.666667
29.354958 -10.5799 0.83393502 14.666667
29.821333 -12.522383 -2.147269 2.1428571
29.836937 -12.175329 -2.1438484 2.8
29.890316 -11.792193 -2.1309454 2.25
29.897472 -11.430263 -2.1271787 4.3333335
29.947174 -10.945543 -2.1134069 4.5
29.943983 -10.523596 -2.0720022 2
29.700481 -9.3245802 -2.0020895 1
29.745836 -12.643262 -1.7965277 3.0185187
29.802828 -10.492207 -1.7769901 2.9722223
29.64344 -9.1904516 -1.9949671 1
29.93165 -8.7027378 -1.9179229 0
29.788219 -8.3137426 -1.8532636 1.25
29.942682 -7.8533072 -1.7030753 1.7222222
29.802851 -7.434617 -1.764199 1.5
29.854937 -6.3025355 -1.7940836 2
29.774712 -12.661764 -1.3925792 5.0500002
29.787357 -10.488355 -1.3807925 4.440351
29.779406 -8.3141079 -1.4080466 3.9166667
29.939329 -7.8288684 -1.3866726 3.5
29.925159 -7.4802537 -1.4033461 3.5
29.944347 -7.1801634 -1.3258883 4
29.767628 -12.675731 -1.0012412 6.8174601
29.764631 -10.499635 -0.98342222 6.4791665
29.737312 -8.2628946 -1.0097965 5.9166665
29.857729 -7.6440043 -1.1204302 5
29.876959 -7.5160689 -1.1239275 5
29.778677 -12.693633 -0.5971241 8.5687504
29.816467 -10.525564 -0.594845 8.4035082
29.712982 -8.3097839 -0.58693892 8.3716946
29.768188 -12.707945 -0.2033245 10.481668
29.798969 -10.540149 -0.20858321 10.310606
29.720503 -8.4038391 -0.21930575 10.5635
29.699352 -8.3289099 -0.19810851 10.638888
29.79096 -12.730805 0.17238805 11.541686
29.661205 -11.990865 0.055399958 8.0679998
29.793501 -10.556259 0.2009293 12.342105
29.621084 -8.4101257 0.038215932 12
29.811747 -8.293376 0.2475379 13.155149
29.824409 -12.731452 0.56712478 12.5625
29.724272 -12.220306 0.7553857 11.52125
29.742224 -11.793561 0.77253008 11.772438
29.850168 -11.460613 0.78622782 11.364166
29.645899 -10.894273 0.75201106 9.0452499
29.833586 -10.567762 0.60375994 13.10606
29.672762 -8.410943 0.41675597 14
29.784416 -8.3235912 0.59143955 15.015875
29.731596 -11.354553 0.80439371 12.666667
29.842077 -10.977081 0.81179535 12.01575
29.845295 -10.649384 0.82203054 12.0096
30.243658 -12.667647 -2.0782046 2
30.040686 -12.235173 -2.1304514 2.5
30.09252 -11.792869 -2.1180253 2
30.106659 -11.364949 -2.105947 1.5
30.119781 -11.057479 -2.0960939 1.5
30.140676 -10.666672 -2.0842688 1.8333334
30.198366 -12.693221 -1.8249609 3.2784317
30.24308 -10.528272 -1.8062799 2.40625
30.134954 -8.9072886 -1.9632438 0.5
30.024452 -8.5870533 -1.9810979 1
30.115376 -7.8765597 -1.8615799 1
30.207163 -12.70923 -1.420102 5.195652
30.227999 -10.538199 -1.4091469 4.6185184
30.136108 -8.5016785 -1.3543315 3.75
30.022556 -7.9322443 -1.3902564 3.5
30.216875 -12.729173 -0.98815942 6.8947368
30.223459 -10.554628 -0.98472893 6.5432096
30.012159 -8.5013933 -1.1196676 5
30.333967 -8.2071562 -0.9530881 6.5
30.204872 -12.742796 -0.58062983 8.608696
30.237986 -10.573765 -0.56937611 8.2894735
30.323685 -8.2211819 -0.55513829 8.5
30.201311 -12.759581 -0.16855142 10.350878
30.186646 -10.588083 -0.19194321 10.201388
30.342218 -8.2397966 -0.25485024 10
30.240215 -12.820644 0.18792135 14.416666
30.191603 -12.770639 0.21748592 11.114286
30.217642 -10.601851 0.20319661 11.428572
30.341965 -8.257988 0.20393758 12.25
30.303104 -12.816553 0.51219356 15
30.216108 -12.725667 0.65194947 12.278317
30.203121 -12.192019 0.74202067 12.583392
30.211412 -11.778694 0.73623639 11.02125
30.182087 -11.38801 0.75266171 11.5215
30.221085 -11.095748 0.75640512 11.028916
30.232416 -10.622671 0.60944015 11.991821
30.347195 -8.2854996 0.71242368 14.666667
30.203659 -10.925465 0.80638069 14
30.203407 -10.648109 0.81545085 14.016334
30.213156 -9.614233 0.87404668 14.0535
30.373701 -9.5002022 0.8693136 15.055
30.314133 -9.1879644 0.88604897 15.0565
30.602945 -12.666666 -2.1151834 2
30.66749 -12.193322 -2.1524332 1.5
30.639025 -11.935954 -2.139096 2
30.518074 -11.444095 -2.1391246 4
30.544336 -10.9015 -2.1208799 4
30.619045 -10.593014 -2.0606594 1.6666666
30.73666 -8.8272219 -2.0081875 2
30.567528 -12.738335 -1.8201736 3.0588236
30.567564 -10.565092 -1.7684203 2.9358974
30.765198 -8.4200621 -1.9354562 1
30.450199 -8.1710091 -1.8905181 1.5
30.617046 -12.755795 -1.4173834 5.1583333
30.633947 -10.582178 -1.4110613 4.90625
30.404001 -8.2292519 -1.2584496 5
30.777966 -12.811729 -0.97025585 7.0833335
30.557468 -12.763284 -0.99879366 6.9000001
30.575565 -10.590313 -0.98817015 6.6071429
30.655729 -8.2649374 -0.96472824 6.5
30.628506 -7.0235581 -0.96828616 6
30.683578 -12.820559 -0.55131721 9.4722223
30.560219 -12.780074 -0.58377928 8.4230766
30.62233 -10.615188 -0.59493273 8.2179489
30.676107 -8.2093868 -0.56939977 8.2664251
30.654047 -12.827695 -0.16669886 11.111112
30.568886 -12.785321 -0.15188532 9.7270555
30.592154 -10.631626 -0.18932001 10.097524
30.654564 -8.2284718 -0.15953328 10.380953
30.614447 -12.830153 0.1839904 12.408594
30.537054 -12.783125 0.079888068 11
30.570732 -10.649129 0.23495249 11.648583
30.669336 -8.2401609 0.22562307 12.357142
30.61211 -12.835539 0.55526525 12.65
30.452066 -12.207404 0.75733364 13
30.456589 -11.737785 0.76477987 13
30.490404 -11.416096 0.77394372 13
30.540344 -11.033175 0.78618246 13
30.589689 -10.662024 0.61418027 12.763417
30.645441 -8.2669916 0.5987522 14.25
30.453129 -10.715361 0.80771893 15
30.633579 -8.3327971 0.84394151 15
31.02034 -12.744442 -2.1165047 2.1666667
30.960009 -12.321562 -2.1534042 3.3333333
30.923656 -11.774487 -2.1363428 2.8333333
30.938051 -11.38067 -2.1213224 2.25
30.985926 -11.005398 -2.1133153 2.4000001
30.96085 -10.684489 -2.0872748 1.5
30.838856 -9.0339336 -2.0211639 2
31.172966 -8.4003143 -2.0013537 2
31.08836 -12.804566 -1.7224922 3.1666667
31.00214 -12.779604 -1.8045022 4.1190476
30.987541 -10.608361 -1.8211367 3.519608
30.834864 -8.6241293 -1.9353409 1
30.82333 -8.2216568 -1.8551799 2
31.063774 -12.808716 -1.3401406 5.5074072
30.941124 -12.786432 -1.4584411 5.25
31.002768 -10.629813 -1.3840626 5.1474361
30.859913 -8.311615 -1.4380102 3.6666667
31.054754 -12.821353 -1.0065184 6.8518515
30.812845 -12.785323 -0.96514946 7
30.991886 -10.643732 -0.94470686 6.8333335
31.102404 -8.236948 -0.89493132 6.5999999
30.994612 -12.829959 -0.62004489 8.3974361
